# .PCD v0.7 - Point Cloud Data file format
VERSION 0.7
FIELDS x y z
SIZE 4 4 4
TYPE F F F
COUNT 1 1 1
WIDTH 1632
HEIGHT 1
VIEWPOINT 0 0 0 1 0 0 0
POINTS 1632
DATA ascii
1.543821 0.29215273 0.46214065
1.4760172 0.34238711 0.44241661
1.0653563 0.24967602 0.2893551
0 0 0
1.6712267 0.5338943 0.48381883
1.0713737 0.25300071 0.29227415
1.841996 0.348405 0.58084506
1.1784233 0.32015842 0.33124682
1.4596995 0.42924619 0.41969588
1.6460172 0.20918298 0.49559975
1.5514489 0.31616223 0.47163704
1.3467336 0.44118983 0.36849776
1.0836523 0.26696858 0.29779309
1.5952221 0.3842814 0.48922896
1.3389616 0.51015323 0.36682278
1.1253761 0.34680045 0.30667713
1.2680827 0.3557564 0.35755128
1.4684829 0.53655934 0.4109484
1.2918663 0.44255602 0.34617689
1.1578561 0.28821236 0.32712427
1.2040036 0.31237939 0.34423867
1.8016993 0.26390481 0.58363086
1.5318583 0.3223446 0.46110123
1.6931702 0.28462979 0.51620239
1.5870433 0.24916509 0.47463846
1.2590119 0.3184208 0.36498529
1.1831081 0.28282559 0.33980978
1.081038 0.26023743 0.29642728
1.1174947 0.3448903 0.30544737
1.6657697 0.41876379 0.50767171
1.5071793 0.33438873 0.45454904
1.8358028 0.55092514 0.53325731
1.4491869 0.53649116 0.40410352
1.8201733 0.30526829 0.58895546
1.4442745 0.46203768 0.40482396
1.5582911 0.51305145 0.44309896
1.7165723 0.44871157 0.5162527
1.2855272 0.33314723 0.37460586
0 0 0
1.4548626 0.51935869 0.40264174
1.5904906 0.27850842 0.47972947
1.8214133 0.66497946 0.53898513
1.2837858 0.43611372 0.34486201
1.2922984 0.32165924 0.38060805
1.7105591 0.27890861 0.51839924
1.2861691 0.46050799 0.34648788
1.3015548 0.32213593 0.38212892
1.6492753 0.40026698 0.50696099
1.5746828 0.28996953 0.4733682
1.3575312 0.44631818 0.37593359
1.2441632 0.32114363 0.35779625
1.1948272 0.33570972 0.33676985
1.659591 0.30731407 0.5086199
1.5604316 0.47911647 0.44368905
1.4861842 0.46360376 0.42051706
1.7894233 0.35536286 0.55494773
1.3604244 0.44071758 0.3736068
1.647669 0.52998978 0.47545174
1.5286319 0.50151426 0.43158004
1.4179622 0.53080511 0.39574164
1.584097 0.48332047 0.45616305
1.5323567 0.29616538 0.45638922
1.2908213 0.26345235 0.37317026
1.338202 0.35780248 0.38635871
1.3267869 0.30970931 0.38752073
0 0 0
1.5099318 0.32529232 0.45362309
1.3446648 0.38928196 0.38337564
1.2727603 0.29596421 0.36946997
1.5873809 0.28116998 0.47821057
1.7070906 0.28879854 0.52124232
1.5136476 0.34620148 0.46176648
1.3516779 0.44720477 0.36782977
1.5668118 0.33784133 0.46789956
1.3655915 0.39679378 0.38815802
1.611161 0.39327508 0.49234292
0 0 0
1.4551842 0.45276341 0.41248345
1.7496252 0.24834117 0.53246576
1.2848568 0.32996583 0.37627617
1.3761626 0.31229582 0.4054105
0 0 0
1.5655516 0.33499354 0.48093927
1.2275199 0.31996799 0.35076734
1.23327 0.31404629 0.35722223
1.2835958 0.3220152 0.37715951
1.4181788 0.29478166 0.41969359
1.3722494 0.40942454 0.38819742
1.4451973 0.3474527 0.43284073
0 0 0
1.2562366 0.31953415 0.36378518
1.5447464 0.45611647 0.44607693
1.2477653 0.3158271 0.36308163
1.5999461 0.5057801 0.45674306
1.5640557 0.27806336 0.4678548
1.381863 0.42538756 0.39578971
1.5941155 0.2848042 0.48237327
1.8288076 0.27277908 0.5837118
1.5962174 0.2907154 0.4807274
1.7421535 0.26890099 0.53291917
1.3476418 0.41830209 0.37419769
0 0 0
1.6109139 0.30311021 0.49020302
1.5627315 0.34051087 0.47771579
1.4698509 0.46886408 0.41423115
1.3285562 0.3936851 0.37462693
1.4458873 0.46076146 0.40539399
1.3032725 0.4133628 0.3533347
1.4580393 0.46267876 0.40948328
1.5771762 0.37370273 0.48366928
1.4893833 0.52370232 0.42609358
1.5202923 0.4359675 0.43979406
1.7569823 0.29622024 0.54850513
1.3720615 0.38321266 0.39418802
1.5911734 0.31694695 0.48592812
1.6005702 0.32678637 0.49459434
1.2881315 0.34728086 0.36802545
1.4759933 0.35890102 0.44118381
0 0 0
1.56646 0.32396996 0.48179328
1.35651 0.33365953 0.40295911
1.3537278 0.42704821 0.37313306
1.9010054 0.8155607 0.55624706
1.4990451 0.3325783 0.45219961
1.5705819 0.55804902 0.44440293
1.3253318 0.37531903 0.37778378
1.7567538 0.2646358 0.55032986
1.7626458 0.49703932 0.52155203
1.6624211 0.54186702 0.47874838
1.7434846 0.63300091 0.50669473
1.5310376 0.339975 0.46782723
1.7755257 0.30427915 0.56121504
1.8114183 0.56741649 0.53077686
1.313079 0.33087757 0.38457096
1.8310671 0.75195205 0.52246583
1.863762 0.75317568 0.54931903
1.2467036 0.33921117 0.35338274
1.4494181 0.43220168 0.41448483
1.419858 0.39249206 0.41421494
1.2884474 0.41253567 0.34911272
1.347548 0.27408892 0.39257774
1.4361378 0.44936207 0.39948121
1.5773885 0.33114678 0.48606101
1.7402784 0.30765444 0.54249483
1.3361286 0.29022747 0.39241493
0 0 0
1.5361481 0.34848866 0.46004772
1.4051602 0.47137645 0.38887185
1.3844912 0.40971795 0.39004034
1.5785601 0.28163043 0.47956592
1.6699835 0.5022614 0.48499846
1.6482202 0.44470522 0.48561636
1.5820407 0.56727028 0.4495886
1.547788 0.3538917 0.46962962
1.4485868 0.34876618 0.43368676
1.7846781 0.24342953 0.58145094
1.7876129 0.27090481 0.57217056
1.3465179 0.37418348 0.38951728
1.7720391 0.27403155 0.56143278
1.8649188 0.60142851 0.5501278
0 0 0
1.7581848 0.54575872 0.50713468
1.3166578 0.43794581 0.3546769
1.5525585 0.32777765 0.46839163
1.4656639 0.46543857 0.41088355
1.4111748 0.38358229 0.4173556
1.3638976 0.45492885 0.36871344
0 0 0
1.5361049 0.32389188 0.46277142
1.7356542 0.28943491 0.52549988
1.4899932 0.3436954 0.43970323
1.4207438 0.42430812 0.40397051
1.2784096 0.32556728 0.37795028
1.5092313 0.38244003 0.43976402
1.7026119 0.33245671 0.52515131
1.4696465 0.49278113 0.40905082
1.4474757 0.49604562 0.40145275
1.5289557 0.55261457 0.42827085
1.5987052 0.29587871 0.48537254
1.7417419 0.25541437 0.53005177
1.4750686 0.52347726 0.41183352
1.6736 0.29015601 0.51325119
1.7242136 0.30281121 0.53177512
1.6984662 0.26163262 0.51189178
1.5671196 0.51728094 0.44445202
1.7137451 0.30036089 0.52963871
1.4094789 0.31782407 0.41751
0 0 0
1.5785357 0.31030667 0.48536825
1.8214527 0.36533073 0.56537443
1.3633354 0.31552824 0.39612463
1.4420341 0.34641337 0.43255374
1.5556968 0.5125193 0.44242036
1.5795017 0.35193521 0.48635337
1.3648289 0.37272561 0.39661092
1.5634611 0.53682947 0.44221008
1.7452362 0.28514981 0.53810716
1.4745731 0.34066138 0.44066426
0.5307982 0.27840152 0.084509082
0.60352868 0.094266377 0.12776488
1.0911781 0.25120562 0.30212876
1.4431967 0.78399867 0.40574256
0 0 0
1.0178218 0.26286379 0.27118132
0.93302232 0.049660742 0.23292691
1.0737463 -0.016939247 0.28630584
0.52111328 0.074429259 0.1018329
0.91751343 -0.026628556 0.23821923
0.99919981 -0.0165084 0.26388595
0.96850473 -0.035578828 0.24916215
1.6683732 0.58964479 0.47941932
0.85599977 -0.017122339 0.19469495
0.88400567 0.021781867 0.20629928
1.040208 0.092989437 0.28082198
0.93439215 -0.029799599 0.23950982
1.2590313 0.052643757 0.35747164
0 0 0
0.52004153 0.13887322 0.10270916
0.52701408 0.18541624 0.09935154
0.83836979 0.38169378 0.19989835
0.7474435 0.33808514 0.16592956
0.82981247 0.42359769 0.18820785
0.96680075 0.43106323 0.24519826
0.59455383 0.31157529 0.11996607
0.54386824 0.26323873 0.092787303
0.80537951 0.41008884 0.1804484
1.4576414 0.036973108 0.42369038
0.52442014 0.10503705 0.10928717
0 0 0
1.4287301 0.033668045 0.4288986
0.9067632 -0.010120507 0.22831225
0.53026849 0.017725674 0.09698835
1.7673035 0.05392579 0.51906478
0.90017521 0.33419025 0.22933772
0.64553952 0.13361511 0.15163115
0.92846859 0.23709878 0.2257275
0.58867234 0.10587659 0.13500747
0.84842211 -0.0034120458 0.19447726
1.653775 0.17482975 0.52248573
1.0648787 0.21051738 0.29200271
0.75303775 0.33874801 0.16737135
0 0 0
0.90038401 0.21312802 0.21788236
0.87824738 0.31048781 0.21775462
0.97687066 0.20113616 0.24186191
0.88075471 0.26263511 0.21321675
1.0239475 0.27059299 0.27531454
0.96752203 0.23157915 0.24098368
1.4390749 0.44221598 0.40848354
1.0883085 0.29754367 0.30138284
1.5195382 0.015480641 0.46241567
0.91290122 0.36092806 0.23067708
0.83961201 0.24599476 0.19720228
0.64473253 0.090531014 0.14308803
1.0134008 0.093895674 0.2701858
1.0267721 0.40834624 0.27305976
0 0 0
0.87099117 0.36404666 0.2007636
1.562027 0.78060609 0.44554141
0.92347074 0.16676167 0.22051933
1.633146 0.1767417 0.49547499
0.93929446 0.39561531 0.24502724
0.91723728 0.30543315 0.23478469
0.76567793 0.31658596 0.1699048
1.0735837 0.28304428 0.25738057
1.2301353 0.20177563 0.34725729
1.5358944 0.76831889 0.43811616
1.5633439 0.36145478 0.48101944
1.7923685 0.30647707 0.56302738
0.81939167 0.31360427 0.19590247
0.86404389 0.25786707 0.20613182
0 0 0
0.98898005 0.441845 0.25210294
0.98670805 0.29244977 0.26373425
0.85277957 0.38990226 0.20200744
0.93895501 0.069100551 0.22770667
1.5930668 0.037382498 0.49065292
0.86120605 0.29117513 0.20730081
0.76994765 0.23379819 0.17147642
0.81240451 0.18134889 0.18704997
0.9446578 0.14965831 0.23241688
0.8393786 0.26268801 0.19869387
1.0825537 0.51154768 0.28189865
0.78937328 0.12777518 0.17910118
1.8719494 0.95816565 0.54906994
1.0229359 0.18612137 0.27381003
1.5426123 0.052040357 0.46710098
0.96617436 0.091655917 0.24723509
0.91633302 0.1318305 0.2228118
1.072538 0.29820424 0.29423428
0.86760622 0.3275885 0.21307218
0.98862112 0.19249162 0.25535539
1.0619175 0.20354351 0.29298526
1.0785774 0.3005662 0.29569438
1.0284737 0.18049751 0.28031647
0.93671256 0.17080817 0.24664705
0.91268128 0.31242633 0.22996999
1.4869635 0.39383978 0.44219115
1.0080835 0.14210187 0.27009803
1.8706334 0.54346573 0.55043972
0.89030349 0.12972784 0.21071331
1.0396951 0.20921253 0.28464743
0.91005594 0.26805675 0.22727387
0.96643728 0.23168704 0.2408658
1.0496459 0.1462232 0.28207976
1.0947289 0.26441312 0.29934803
1.3666005 0.58851814 0.37827885
0.97081465 0.1636665 0.24651916
0.90691322 0.24243867 0.21697603
1.1316563 0.24565698 0.31920835
0.95044827 0.2210916 0.23342276
1.0183924 0.29328024 0.28101844
1.3286272 0.52597654 0.36654359
1.1105325 0.23655733 0.31343654
1.1086938 0.2977514 0.30722973
1.195646 0.48530653 0.32291651
1.029238 0.20742266 0.27745533
1.0342803 0.24104412 0.27957734
0.97654766 0.19024482 0.25257394
1.436389 0.61127222 0.39990786
1.7989509 0.26561791 0.57877576
1.108897 0.23226191 0.31093958
0.99384433 0.29438621 0.26690495
1.2672105 0.38686526 0.34850013
1.0536755 0.27749774 0.28558242
1.0450586 0.3505699 0.28695074
1.2492207 0.4255071 0.33417359
1.6330652 0.1464693 0.51413983
1.0532451 0.25370151 0.28905511
1.1833405 0.20551684 0.33982015
1.3187406 0.42636678 0.35986197
1.4814039 0.33670041 0.44404289
1.40681 0.42850116 0.39641309
1.2724754 0.36443615 0.35965517
1.3040313 0.41969666 0.35429096
1.0360627 0.2013056 0.27615875
0 0 0
1.5458388 0.31900162 0.46842286
1.6825795 0.26216403 0.50820273
1.0113544 0.29984501 0.26988512
1.0376883 0.25233921 0.28797913
1.0664952 0.25130877 0.29101592
1.5450754 0.50272804 0.43696493
1.6687015 0.5130651 0.47978052
1.6233423 0.38641796 0.50064075
1.7248733 0.58448124 0.49757257
1.2554946 0.3864764 0.34309343
1.1778247 0.27376392 0.33651441
1.7569703 0.72943097 0.50749201
0 0 0
1.725623 0.29992172 0.54120034
1.2122915 0.34578696 0.33955267
1.4742222 0.53693676 0.40656623
1.3985929 0.3989284 0.40390673
1.5850238 0.33722591 0.49318543
1.5896322 0.31142566 0.48458704
1.3728772 0.40685251 0.38833597
1.2926619 0.44372934 0.34590006
1.239149 0.36290839 0.33910492
0 0 0
1.398973 0.46308571 0.38277894
1.3839117 0.3877387 0.40236518
1.8536211 0.50495046 0.54527026
0 0 0
1.4406866 0.43274763 0.4092412
1.2068088 0.2855114 0.34453672
1.6774187 0.69505727 0.48328915
1.3229756 0.37332842 0.377381
1.2214921 0.35491651 0.33924127
1.6400266 0.28922015 0.5014258
1.6781415 0.52782178 0.48543361
1.4407274 0.37841141 0.42890194
1.3620651 0.45398149 0.370597
1.7305486 0.27469984 0.5311287
1.5652436 0.37492055 0.47763541
0 0 0
0 0 0
0 0 0
1.3019691 0.26584074 0.37497503
1.4506359 0.36903304 0.43326956
1.4210376 0.43442452 0.40004072
1.3505989 0.37024373 0.39112943
1.6656826 0.42484209 0.50718403
1.8946933 0.52458167 0.55419469
1.4800272 0.50842232 0.41284561
1.3298941 0.37836555 0.37804642
1.3430462 0.28574854 0.38618547
1.3446218 0.3411864 0.39436653
0 0 0
0 0 0
1.4058919 0.37824717 0.4131425
1.3572905 0.27233815 0.39114809
1.7390692 0.27878335 0.52977109
0 0 0
1.6739253 0.28457084 0.5099749
1.3157487 0.31582376 0.38193238
1.4263462 0.46634182 0.39053378
1.790747 0.49361348 0.51047051
1.5973077 0.34757081 0.4890081
0 0 0
1.4821773 0.45556265 0.42351887
1.8715224 0.59121329 0.55159998
1.615083 0.49093765 0.4679831
1.4738666 0.53107738 0.41106963
1.6095895 0.28366312 0.48662943
1.4359535 0.48037466 0.3953864
1.3086679 0.35255578 0.37514597
1.4787155 0.53288019 0.41230389
0 0 0
1.5379643 0.56395853 0.43106267
1.4847202 0.27896401 0.43118772
1.5624434 0.48314053 0.44627887
1.4585083 0.48533902 0.40444854
1.3731511 0.27303097 0.39892754
1.3735038 0.29030964 0.40308172
1.4680312 0.50895977 0.41509065
1.429038 0.29204798 0.42064658
0 0 0
0 0 0
1.4879379 0.54356343 0.41539919
1.6041232 0.46611688 0.46542493
1.8953731 0.55871493 0.55739093
1.7017466 0.58125329 0.48782066
1.5019487 0.32581222 0.45143157
1.7075889 0.33370999 0.52592319
1.7985979 0.2605913 0.58647698
1.7839929 0.26688284 0.57383472
1.4732126 0.30090919 0.43538329
1.328213 0.31191477 0.38794753
1.5970012 0.50018495 0.45133188
0.57106405 0.17127734 0.1210639
1.6570721 0.31392032 0.51120806
1.6020387 0.34121194 0.49577832
1.5665855 0.37067035 0.4821808
1.5597711 0.46166342 0.44833705
1.6279243 0.45429122 0.47261763
1.5189536 0.53858167 0.43457395
0.50175267 0.23142064 0.077869609
1.0324378 0.16033387 0.27654979
0.40750951 0.034997031 0.045440346
0.50811255 0.04630091 0.093816653
1.0588076 -0.010460918 0.28833601
0.89929265 0.35100955 0.22638686
0.9315877 0.17524001 0.22866026
1.7288439 0.18226926 0.54853725
1.0188767 0.18361524 0.27498129
1.2418529 -0.045345549 0.38123527
0.29388452 -0.016312309 -0.0033873806
0.88395828 0.34968615 0.22061355
1.0473498 0.25789145 0.28481275
1.0077786 0.085300878 0.26534536
0.89230716 0.35538578 0.22522828
0.47325563 0.061481737 0.077738948
0.53961068 0.16660453 0.10858034
0.83916628 0.11474207 0.20302823
0.92872936 0.33499777 0.236148
0.83664048 0.32052925 0.20052038
0.98506385 0.16975361 0.2510573
0.94914609 0.21599422 0.23504767
0 0 0
0.97259814 0.1268896 0.25058955
0.91219753 0.28161803 0.23073542
1.0691961 0.46621957 0.2808947
1.5535753 0.66684401 0.4376452
0.90475446 0.09666504 0.21405208
0.87327564 0.097197533 0.20944309
1.3775961 0.73590493 0.38598552
0.92500544 0.38357165 0.24316254
0.77069801 0.21644118 0.17327666
0.82767957 0.19575681 0.19054426
0.69002777 0.15297852 0.16199031
0.61027187 0.136719 0.14532442
0 0 0
0.78479826 0.30783406 0.17747806
0.8285833 0.14208491 0.18844886
0.90912217 0.12759581 0.22149237
0.96419907 0.19165912 0.24083224
0.87108612 0.24333134 0.20767742
0.74515915 0.29032347 0.1607074
0.80849761 0.33255941 0.18787016
1.3353269 0.70368516 0.36739278
1.0017947 0.10247101 0.2633633
1.0045493 0.08431311 0.26480225
1.1901997 0.51964617 0.32006833
0 0 0
0.90773958 0.065876476 0.22179276
0.86923069 0.090273313 0.20464104
0 0 0
0.54605764 0.13461158 0.1110123
0.87733227 0.085911803 0.2052628
0.99391198 0.086297691 0.26281351
0.75690103 0.25918007 0.16503528
0.95645154 0.40058219 0.25151253
0.77708656 0.26271972 0.16908838
0.77911043 0.30472624 0.1762771
0.86591464 0.29904935 0.21160266
1.0760291 0.43112016 0.29486355
1.4966778 0.11265931 0.43974066
0.9653182 0.15742595 0.24473248
1.2104425 0.49239224 0.32259449
0.95732594 0.22653548 0.24304739
1.0910746 0.2355991 0.30070788
1.0721543 0.34874371 0.29399747
1.6124563 0.37708759 0.49947476
1.0414113 0.27057406 0.28408101
1.1192784 0.46946961 0.29807189
0.94582671 0.11037689 0.24231651
0.77999359 0.29791233 0.18025108
1.1094084 0.26724115 0.30833492
1.2261777 0.36886263 0.33954409
1.1862303 0.54962051 0.31277174
1.1140629 0.26132694 0.31658116
1.5512216 0.3007088 0.47095788
1.0580442 0.27442238 0.28726646
1.4609935 0.46946019 0.40684184
1.0985134 0.22592574 0.30784351
1.0920396 0.27047703 0.3025448
1.2872667 0.46762058 0.34925365
1.0791388 0.20459299 0.29886606
0 0 0
1.1339375 0.23563732 0.31831431
0.86104649 0.2946322 0.20587294
0.94736749 0.27978638 0.24593204
0.86624318 0.29605192 0.20724928
0 0 0
1.656963 0.7241407 0.47623822
0.83485997 0.27826643 0.19680536
0.92845738 0.37209493 0.24061036
0.94383854 0.22907823 0.23132218
1.5949429 0.081836388 0.49590957
1.0543239 0.41080549 0.27711317
0.99999952 0.29413629 0.26929852
1.099808 0.26906437 0.30163711
1.0042658 0.28598732 0.26880458
1.5779279 0.13343403 0.46974409
1.0766608 0.26581207 0.29630798
1.0118073 0.20512453 0.27566794
1.2603656 0.21555796 0.35346633
1.7679584 0.6023705 0.509866
0 0 0
1.6981688 0.22148985 0.51246834
1.5670024 0.47324952 0.44919604
1.2058476 0.29528886 0.3456234
1.3409793 0.36710539 0.38858423
1.1203691 0.26390988 0.31660828
1.5551012 0.51897532 0.43547601
1.5397719 0.33839399 0.4663516
1.7671579 0.20466197 0.56529003
1.1413863 0.23263745 0.31810316
1.1127067 0.23081677 0.31141874
1.062831 0.20990987 0.29044777
1.0845027 0.30779803 0.29767489
1.2036602 0.34376711 0.33813849
1.023965 0.29592776 0.27805883
1.6874961 0.16068673 0.53035384
1.6991527 0.35035548 0.52385372
1.4605529 0.45659137 0.41151297
1.4998835 0.30930376 0.44645581
1.4542053 0.45025447 0.4145835
1.4344646 0.43429616 0.40633702
1.7726912 0.54958916 0.51802343
1.0720376 0.2090594 0.29842532
1.0556108 0.25631922 0.29220188
1.1264486 0.23674226 0.31455702
1.29808 0.34763119 0.37270677
1.5947777 0.28062564 0.48161197
0 0 0
1.0512247 0.20882919 0.28256336
1.3993733 0.53555578 0.38807639
1.5179613 0.36794716 0.46118423
1.5629869 0.31062961 0.47759372
1.781261 0.54487532 0.52031767
1.5325886 0.4536452 0.44130164
1.8179845 0.56162238 0.53126854
1.5204633 0.34094694 0.46419868
1.7521602 0.33324078 0.5425846
1.4251664 0.41517788 0.41158628
1.6904837 0.20537469 0.50709397
1.3100388 0.32640833 0.38632765
1.3344851 0.38239947 0.3798427
0 0 0
1.512193 0.36427596 0.44754061
1.3339586 0.40387157 0.37274593
1.6509414 0.49274278 0.47824773
1.7277972 0.58248061 0.49780092
0 0 0
0 0 0
1.776227 0.29050443 0.57028323
1.7457328 0.25449884 0.53041106
0 0 0
0 0 0
1.6535726 0.28103638 0.50566238
1.5334409 0.46264794 0.43742749
1.3828048 0.29042184 0.40365136
1.4700093 0.4658131 0.40286726
1.2996918 0.41118816 0.35477537
1.5996577 0.48040944 0.46079376
1.6558405 0.49849185 0.47802487
1.0054945 0.4064911 0.26737818
0.52064598 0.081866071 0.10205039
0.92113447 -0.0034407717 0.2372085
0 0 0
1.6212337 0.11984141 0.51285774
0.43699187 -0.0017063873 0.051507186
0 0 0
1.0443286 -0.10466304 0.28395495
0.71839833 0.3229965 0.15655831
0.37221777 -0.0017581494 0.037477311
0.53932041 0.10564736 0.10966761
0.89338046 -0.033594847 0.21828264
0.48711535 0.096019164 0.077191792
0.3506397 -0.0023947163 0.026773194
0.86540401 0.29161718 0.20756148
0.9426111 -0.029356016 0.24522871
0.47104552 0.27870935 0.066153042
0.46915045 0.22242081 0.056418035
0.91700602 0.35821849 0.23791422
0.45046341 -0.007924607 0.061345086
0.88448942 0.36989093 0.21824035
0.54651076 0.16444589 0.11192808
0.93531835 0.00097383151 0.24723059
0.37661478 -0.033994172 0.03305852
0.97971946 -0.085703723 0.26050213
0.45307818 0.088366769 0.060915899
1.6590381 0.0016240361 0.51747996
0.48578456 0.23856127 0.067011863
0.54220694 0.0077071534 0.1011317
0.29578257 -0.0025158403 -0.010308374
0.93797427 0.18125032 0.22992727
0.93923289 0.17911474 0.23405237
0.33775553 -0.010329925 0.021565687
0.48840165 0.078167222 0.08239352
0.18247721 0.084931955 -0.042730901
0.57408023 0.13349311 0.12339225
0.66689223 0.011753889 0.13238457
0.55928624 0.30858704 0.1016048
0.47859564 0.22088493 0.069717094
1.0420544 -0.065944992 0.285317
0.90417337 0.044020638 0.21994363
1.0111679 -0.04818438 0.28708768
0.89052176 -0.016460497 0.2089704
0.68713254 0.32682502 0.13839102
0.58762491 0.31765485 0.11874007
0.92332792 0.01206605 0.24321038
0.44613069 0.18320414 0.046937998
0.52806985 0.27345133 0.081778236
0.40843871 -0.036345284 0.024251619
0.57853127 0.07609918 0.12477314
0.41944045 -0.0031738062 0.052491706
0.98674053 -0.043770347 0.275374
0.54310679 0.20045716 0.11320466
0 0 0
0.38483918 0.041837778 0.030291134
0.34424609 -0.046206594 0.014654996
0.53426361 0.089597672 0.10938506
0.57919848 0.30439073 0.11604781
1.1000785 0.033861555 0.30155197
0.57503027 0.071908228 0.11584841
1.4658883 0.082227752 0.43006817
1.6095071 -0.021717703 0.50086457
0.57391214 0.27609903 0.10847858
0.95742762 0.11096956 0.24756268
0.60956782 0.14533877 0.14321555
0 0 0
1.0048344 -0.024865581 0.26499858
1.0165188 -0.0083612837 0.27427089
0.51219368 0.10217081 0.10163491
0.57321697 0.16393957 0.12077262
0.45086733 0.039059393 0.064844981
0.57337886 0.095465474 0.13073857
1.0370172 0.28409097 0.28053328
0.88983947 0.35711241 0.22352289
0.51014835 0.19769017 0.093197167
1.0082477 0.17733869 0.26981705
0.88828164 0.10463148 0.21034157
0.81948787 0.34106067 0.1944589
0.76578629 0.30946663 0.17706585
0 0 0
1.1740394 0.06718602 0.27913594
0.84517324 0.28460473 0.20483339
0.74556839 0.13621542 0.16332713
1.074165 0.34690911 0.29499179
0.53561938 0.19000022 0.11210235
0.9496277 0.35198689 0.25050583
0.86123431 0.26893169 0.20540315
0.81974047 0.15043184 0.18751782
1.6321027 0.7935468 0.46807158
0.89289647 0.32684991 0.22569528
1.7586454 0.2274137 0.5351724
0.98732948 0.21416105 0.25625908
0.91847795 0.14368755 0.23292491
0.90840763 0.26086709 0.22293957
1.1942562 0.52298707 0.32687178
1.0013874 0.40323904 0.26458558
1.0178875 0.24843462 0.27216184
1.1634077 0.46808407 0.31102642
1.571651 0.16071303 0.46537706
0.99703085 0.28694001 0.26565984
0.97522348 0.153346 0.25698808
0.95692277 0.1901093 0.23974475
0 0 0
1.2441287 0.56501031 0.33699435
1.046571 0.16621575 0.28438032
1.1529794 0.20064852 0.31638327
0.9794814 0.31815323 0.2632238
0 0 0
1.0500432 0.45507297 0.2756592
0.92384237 0.30148953 0.23308021
1.7794785 0.84338135 0.52459544
0.81158769 0.23633087 0.1828445
1.0618988 0.25172254 0.29021868
0.97840011 0.28982744 0.26114705
1.0470691 0.27433068 0.28233317
1.0406635 0.2629894 0.27884635
1.3331294 0.35861704 0.38582867
1.0541631 0.35105962 0.28921464
1.0453444 0.23228057 0.28518048
1.044144 0.20714772 0.28587079
1.333492 0.35740244 0.38597885
1.1624694 0.30162442 0.32948762
1.5492936 0.45626464 0.44705009
1.4244179 0.43870461 0.39987907
1.010217 0.18392658 0.27108189
1.0842192 0.28252867 0.29894134
1.2958475 0.37846267 0.36688283
1.2985278 0.36148301 0.37052032
1.6576086 0.54261827 0.47841698
1.2457174 0.32214561 0.35762078
1.1766278 0.3764241 0.31855962
1.6378186 0.1962494 0.49740282
1.3010583 0.38181084 0.36566964
1.3418497 0.34720904 0.40140909
1.1989676 0.4122498 0.32069674
0 0 0
1.4632123 0.39911422 0.41046339
1.4427766 0.48577937 0.39710483
1.350229 0.41870299 0.37534332
1.3151249 0.35641626 0.37638757
1.8182845 0.32924566 0.57862949
1.4867997 0.54658777 0.41599968
1.4855347 0.44922331 0.42232469
1.8389877 0.53380638 0.53901619
1.2542596 0.29717368 0.36457467
1.3726044 0.48098433 0.37508017
1.4360487 0.4448052 0.39986148
0 0 0
1.3257679 0.27055243 0.3837609
1.3309271 0.2765916 0.38526374
1.2543957 0.29945189 0.36321449
0 0 0
0 0 0
1.5858241 0.44907936 0.46191981
1.5613997 0.3244707 0.47968239
1.439755 0.50367612 0.3977935
1.2725941 0.28406233 0.36745611
1.6146772 0.27942979 0.49478412
1.5926279 0.33789971 0.47153506
1.520689 0.55349427 0.42330641
1.7454325 0.25832859 0.53343928
1.3409767 0.26670974 0.38908207
0 0 0
1.3470514 0.41205579 0.37700886
1.3003783 0.34730139 0.37433937
1.5548608 0.51429021 0.44138846
0 0 0
1.6862839 0.27368566 0.51061422
1.4476097 0.36565125 0.43323213
1.2884598 0.32130954 0.37694347
1.8097141 0.33619809 0.56582379
1.283251 0.32197085 0.37710276
1.4504979 0.44810808 0.41228154
1.515149 0.54882491 0.42421389
1.35795 0.36957791 0.39530748
1.2687908 0.35653684 0.35770202
1.4245729 0.42551172 0.40487313
0 0 0
1.5812947 0.37576014 0.48355472
0 0 0
1.7804322 0.35339081 0.54774457
1.7302938 0.32406303 0.53205675
1.3826472 0.40022346 0.39653537
1.6225554 0.29035887 0.48642874
1.5266491 0.50903749 0.42391595
1.3743112 0.32829636 0.41564861
1.4145483 0.38507691 0.4163723
1.5250822 0.54309314 0.42658463
0 0 0
0 0 0
1.5228522 0.32366368 0.45838022
1.4737661 0.51677984 0.41381255
1.5951662 0.54330021 0.45188817
0 0 0
0.4287757 -0.028800219 0.059242979
0.17798366 0.089229546 -0.050125889
0.44804892 0.056099184 0.067741707
0.42165565 -0.014660932 0.051627524
0.42291564 0.030577483 0.050068922
0.51318759 0.28646678 0.081163168
0.38541093 0.046150982 0.028545626
0.40362984 0.11601971 0.028932238
0.3274872 -0.041863408 0.0099727036
0.33718958 -0.020984786 0.013838303
0.91898227 -0.025446445 0.2312489
0.85075331 0.012356928 0.19776513
0.3920877 -0.026657047 0.030933389
0.52417767 0.29328057 0.081905618
1.0947974 -0.13267225 0.31906319
0.29326278 -0.053516936 -0.007654273
1.011656 -0.093469776 0.27982372
0.35846102 -0.0095374091 0.029547544
0.92952091 -0.068109341 0.23529638
0.48464683 0.21971716 0.054021332
1.1311358 -0.064049847 0.32680637
0.60700232 0.18764906 0.13844782
1.0658363 -0.12333813 0.28706998
0.85222578 0.33684838 0.20894592
0 0 0
0.87478739 -0.01459894 0.2091943
0.4913162 0.12917192 0.089981742
0.41983575 0.051986147 0.046803769
0.38703203 0.06209103 0.02195501
0.44679102 0.014460441 0.064331077
0.97580224 0.082422718 0.25672415
1.0178289 0.29224974 0.27639937
1.1599302 0.10960811 0.31964612
0.47205493 0.074644037 0.075963482
1.4628623 0.042570207 0.43963799
0.80389374 -0.0020676851 0.18199839
1.8271253 0.26898193 0.59496683
0.86788017 0.29736331 0.21175505
0.89120352 0.3476238 0.22720155
1.0968246 0.2825228 0.3003594
0.94228059 0.052049216 0.23635024
1.8711916 0.61600649 0.55120182
0 0 0
1.0132143 0.13119507 0.27487674
1.049612 0.24607284 0.28699622
0.84678215 0.26728711 0.20132165
0 0 0
0 0 0
0.94373065 0.41425893 0.23774934
0 0 0
0.78080189 0.12526901 0.17612252
1.6351217 0.052333824 0.52091426
0.90495861 0.28501487 0.23296532
1.409416 0.72674364 0.39519006
1.6838533 0.87345493 0.49648669
0 0 0
0.68382102 0.24322745 0.15524577
1.122919 0.31223395 0.31234667
1.0482161 0.46041688 0.27209169
0 0 0
0.64894867 0.14201786 0.15549941
0 0 0
0.99039853 0.44228989 0.25078306
0.85606211 0.13549353 0.19505408
0.64079213 0.20694749 0.14591804
0.64223975 0.14119816 0.15584691
0.67411202 0.13711655 0.15771918
1.5708792 0.06106339 0.48907879
0.66277862 0.13749151 0.15450755
0.98835731 0.45818338 0.24559592
0.65719157 0.12208695 0.15310232
1.6877886 0.86763185 0.49518526
0 0 0
1.2663959 0.62071496 0.34190264
0 0 0
0.75283086 0.10971314 0.17356418
0.94849259 0.10576881 0.24390107
0.89747316 0.27590233 0.2230664
0 0 0
0.60573739 0.13491057 0.1502499
0.74891704 0.26833498 0.16180183
0.74094385 0.27935201 0.15910105
0.9095726 0.35865298 0.22634146
0.90044743 0.26819447 0.22284123
1.0270617 0.20655493 0.27756092
1.0314087 0.16124643 0.27828646
1.0189462 0.14716695 0.27530894
1.0255872 0.24582717 0.27677053
1.1027411 0.25221348 0.30804917
1.0186825 0.26503223 0.27083188
1.1226921 0.25398088 0.31702343
1.6114243 0.11188497 0.50807726
1.8226403 0.31027174 0.58666039
1.2496289 0.30618417 0.36347476
1.6093264 0.2952275 0.49229378
1.8614951 0.78025496 0.54724616
1.3619403 0.33723885 0.40361598
1.3461684 0.44388267 0.36739624
1.7008492 0.27808601 0.51496828
1.5286478 0.32368466 0.462378
1.5381207 0.27099583 0.45738608
1.3793411 0.28743547 0.40281025
0 0 0
1.4142152 0.3289932 0.41148514
1.5738205 0.49216008 0.45113891
1.340403 0.3414939 0.39308938
1.8213446 0.49591073 0.53781122
0.35681486 -0.010488304 0.029810907
1.0637466 -0.13734485 0.30267608
0.45312619 0.26301873 0.056463026
0.46906525 -0.00078117126 0.071811803
0.92642325 0.30833846 0.2373604
0.35846496 0.053436175 0.013022222
1.0549318 -0.10787961 0.29771668
0.42259154 -0.0093010906 0.05015631
0.32889789 -0.062682621 0.00090111466
0.99672729 -0.054437362 0.25165474
0.91000628 0.038814161 0.21985368
0.48668283 0.19649649 0.079563186
0.45906314 0.20854723 0.052910242
0 0 0
0.96560806 0.36110938 0.25721908
0.29302475 -0.015776206 -0.0034539348
0.9537729 0.33884367 0.25165772
0.96776837 0.12822425 0.24551177
0.49837095 0.0045916801 0.085602067
0.63682318 0.31762642 0.12803166
0.45822835 0.089972563 0.074160114
0 0 0
0.58117092 0.35112464 0.093459085
0.50861257 0.047510359 0.09440966
1.0690067 0.42699888 0.28700009
0.23780967 -0.040233582 -0.036089972
0.41993028 0.25649589 0.043670882
0.40828305 0.066244215 0.02467218
0.28787273 -0.078917786 -0.018368419
0.44025475 0.19995847 0.043441437
0.23767312 -0.05954301 -0.019986711
1.7127966 0.29003561 0.52513421
1.091921 0.2982524 0.30248547
0.40066054 0.025010876 0.047717165
0.47499266 0.22859314 0.059343997
0.19144197 -0.051661134 -0.048984375
0.28909096 -0.058111306 -0.011628422
0.43029281 0.08883936 0.04851668
0.40830341 0.0069803796 0.05099687
0.459699 0.097367115 0.059321739
0.58176076 0.29279014 0.10775788
0.45885941 0.30363497 0.06189958
0.98808795 0.39538077 0.26384056
0.43537933 0.18720563 0.044391513
0.86622453 0.33324438 0.20899111
1.1581202 -0.052349959 0.33903071
0.1389595 -0.06154345 -0.064961992
0.21534546 -0.057986006 -0.042512227
0 0 0
0.24178785 -0.065858528 -0.02047766
0.30646187 -0.065996796 -0.0040702107
1.115435 0.48645836 0.29907212
1.8446498 1.0625399 0.53793865
0 0 0
0 0 0
0 0 0
0.43761539 0.071778797 0.061325442
0.36379996 0.027578309 0.027659306
0.39469814 -0.021956185 0.039626796
0.31579682 -0.06162177 -0.0040993164
0.86640716 0.35259819 0.20777602
0.30333266 -0.074620999 -0.015048165
0.47223967 0.1682405 0.082756773
0.17436866 0.0487381 -0.053999159
0 0 0
0.28902328 -0.03521923 -0.025254481
0.95803177 0.028418617 0.24107422
0.4677622 0.16444589 0.079987146
0.47586748 0.053552549 0.076531336
0.61548793 0.19990747 0.13887833
1.2777338 -0.066612616 0.37971216
0.9455415 -0.063554443 0.24411257
0.40827879 0.22611067 0.037550878
0.47864819 0.08413022 0.077982903
0 0 0
1.0570313 -0.055714618 0.29517809
0.37902248 0.072021417 0.020213461
0.53772104 0.11460235 0.11011181
0.34832323 -0.043238319 0.016356427
0.96946359 0.3552517 0.26013005
0.41456151 0.021925692 0.054900032
1.1555482 -0.028346004 0.32275116
0.55401057 0.19062965 0.11372975
0.41045603 0.079552419 0.026392279
0.77791297 0.47210079 0.16923445
0.39557213 0.011956898 0.050530501
1.7221416 0.89088148 0.50602674
0.49552149 0.031900197 0.087988779
0 0 0
0.5869751 0.21685848 0.12658806
0.84826773 -0.027277557 0.21814676
0.53170156 0.070683114 0.1083452
0 0 0
0.48360798 0.03309365 0.090312168
0 0 0
0.49350122 -0.001583252 0.085000776
0 0 0
0.58948684 0.32583466 0.12196054
0.50970715 0.20759267 0.085550174
0.81626552 0.011565987 0.18944508
0.87247324 0.085119039 0.20451926
0.78489614 -0.013421156 0.17369947
0.47725889 0.085640959 0.073618725
0.88785291 -0.023499032 0.21015033
0.85884696 0.046508275 0.19708569
0.58307105 0.32391211 0.11897733
0 0 0
0 0 0
0.8435235 0.025926903 0.2019321
0 0 0
0.48130053 0.19010608 0.084699482
0 0 0
0.47930983 0.22967859 0.057741042
0.48044837 0.25378379 0.072942302
0.56055295 0.016335465 0.11041277
0.9566651 -0.041260198 0.23745483
0.42233279 0.039204422 0.050481226
0.43268564 -0.017160198 0.047798641
0.53414613 0.16339524 0.10777207
0.9865163 -0.021130394 0.26224706
0.85321653 0.30524597 0.20575699
0.9245562 0.074785076 0.22280057
1.757236 0.21566072 0.55236417
0.5697481 0.10197599 0.12885787
0.4979004 0.13974306 0.09703318
0 0 0
0.7714451 0.38329279 0.17800258
0 0 0
0 0 0
0 0 0
1.4628134 0.090739183 0.42599249
0.87335199 0.35147065 0.21414959
1.0845077 0.22008124 0.29961962
0 0 0
0.48227578 0.069777526 0.079706758
0.95653749 0.22278021 0.23596169
0 0 0
1.7462485 0.82294989 0.5060156
0.99996608 0.18005526 0.27326986
0.75421917 0.31865558 0.16529882
1.0366125 0.44990247 0.27077591
0.58072609 0.22827029 0.12874304
0.82734495 0.1574413 0.18971659
0 0 0
0.81586367 0.10932717 0.18575315
0.61040527 0.15143079 0.14399438
0.85292029 0.25405312 0.20202959
0.59540343 0.09462484 0.13765469
0.79139602 0.30907765 0.18268508
1.7948456 0.82130098 0.52708369
0.99327654 0.27791455 0.26559407
1.0480987 0.27753571 0.28432739
0.82826138 0.15319949 0.1916039
0.88669431 0.28800419 0.22439985
0 0 0
0.87419033 0.10100482 0.20983036
0 0 0
0.87232631 0.1314058 0.20847018
0.61100185 0.17453977 0.14251629
0.9505626 0.1094124 0.24376662
1.1674159 0.27620867 0.32521382
0.95841479 0.16326335 0.24585897
1.4992772 0.33623728 0.46414226
0.81996119 0.33413929 0.19277866
0.71498859 0.14927585 0.16250245
0 0 0
0.93321067 0.14556536 0.23607633
0 0 0
0.83315748 0.1610139 0.18964064
0.67656016 0.25215346 0.15175688
0.75761211 0.25935042 0.16564794
0 0 0
0 0 0
0 0 0
1.6770061 0.10685512 0.53539205
0.93643594 0.1172815 0.2174149
0.75234675 0.27538159 0.1609994
0 0 0
0 0 0
0.82435757 0.10649428 0.18403575
0 0 0
0 0 0
0.86217678 0.29006428 0.20724767
0.82477129 0.27578679 0.19363944
0.82606012 0.23794329 0.19223806
0.95063764 0.1441877 0.23694029
1.1598052 0.36347654 0.31674269
0.93521637 0.32964525 0.23947923
1.7563326 0.88547373 0.49873787
1.0879834 0.29774973 0.30097008
1.0143405 0.38852623 0.27176884
1.3065335 0.42358732 0.35605156
1.3729705 0.38952959 0.39642522
1.4808968 0.46631664 0.41904947
1.0753844 0.20861332 0.29941043
1.0198908 0.29701775 0.27575132
0 0 0
1.1171712 0.27725384 0.30736428
1.0856332 0.2659561 0.29546696
1.5495889 0.24616766 0.46442065
1.2428211 0.30437598 0.35952005
1.0679162 0.34973937 0.29381973
0.97986645 0.17013806 0.25276804
1.8071413 0.32291916 0.57297146
1.5282463 0.52783233 0.42602569
1.1779263 0.287882 0.33387288
0.97224659 0.33243835 0.27182651
0 0 0
1.1335344 0.25572559 0.32173184
1.1000608 0.30054879 0.30782241
1.0282207 0.35084257 0.28312069
1.02798 0.34688687 0.28086975
1.0422957 0.34806243 0.28956556
1.1249926 0.28289285 0.32273987
0 0 0
1.4122589 0.62371391 0.39137369
1.6990342 0.34121177 0.52270895
1.6189563 0.39566791 0.49516469
1.79348 0.56539804 0.52365571
0 0 0
1.3272564 0.38527808 0.37952903
1.0689769 0.20700923 0.29714796
1.5424 0.55690098 0.43272582
1.0853424 0.31098664 0.29985195
1.2107394 0.29875144 0.34691256
0 0 0
1.3453747 0.51334882 0.37046149
0 0 0
1.2438622 0.32606861 0.35332465
1.2358027 0.28849268 0.35544235
1.2115959 0.29019758 0.35080954
1.4746953 0.53570843 0.40770233
1.2655462 0.31348878 0.36833575
1.2419201 0.40343198 0.3351272
0 0 0
1.772481 0.22740509 0.56374162
1.5710037 0.3470163 0.4823353
0 0 0
1.7439981 0.23040803 0.54455549
1.7810227 0.2891311 0.54596245
1.3004968 0.35712495 0.37228039
1.2278414 0.39091626 0.33057645
1.6527427 0.41004938 0.50486255
1.3259553 0.46154243 0.36026791
1.5944159 0.50955343 0.46102244
1.2878692 0.41583675 0.3532277
1.5517336 0.42239892 0.45840496
0 0 0
1.3871658 0.3922435 0.4032107
1.3667798 0.39636663 0.38800132
1.3900923 0.40246981 0.39775652
0 0 0
0 0 0
1.4064924 0.43538928 0.3961606
1.5345236 0.56253451 0.43020585
1.2506644 0.30384824 0.36293221
1.484893 0.3306134 0.44163692
1.2946187 0.32756194 0.38282633
1.381785 0.34016681 0.40582278
1.6605802 0.55169427 0.4772549
0 0 0
1.593069 0.38051644 0.48944536
1.9211512 0.37912354 0.59121424
0 0 0
1.3466947 0.30254978 0.39458331
1.6026804 0.31417727 0.49181619
1.4433299 0.4305158 0.40787667
1.7791811 0.6989224 0.52402347
1.7998019 0.36872178 0.55522192
1.6079482 0.28100196 0.48426485
1.5288675 0.55680364 0.4266108
0.74743563 0.33646664 0.16455756
0.45366862 0.19693227 0.046884593
1.5864933 0.47015339 0.45679358
1.4412091 0.50661039 0.40757093
0 0 0
1.8576274 0.57737601 0.54827601
0.44242486 -0.01022365 0.060195073
0.40428421 0.11743902 0.029755123
-0.05776643 -0.11332992 -0.10040822
-0.028895939 0.048334915 -0.12710223
0.042475838 0.074510336 -0.085856676
0.4516153 0.10885552 0.053440381
0.5160386 0.18944359 0.096289448
-0.067329727 -0.034070089 -0.12669277
0.453904 -0.01719176 0.059843317
1.0691651 -0.17704986 0.29398423
0.4155032 -0.038504008 0.056575753
0.30911744 0.0011311985 -0.0088941427
0.84459537 -0.011759389 0.20951138
-0.048377596 -0.10101398 -0.10116096
0.088342264 -0.021251738 -0.08217857
0.49391845 0.22868012 0.071760178
0.059700362 0.08033929 -0.079811707
-0.03578807 0.022105044 -0.1249488
0.44291952 0.092827879 0.051280238
0 0 0
0.43637636 0.20246185 0.042245124
0.43163249 0.098990262 0.043509644
0.26188669 -0.020526417 -0.012959093
-0.098843515 -0.080446802 -0.1251483
0.47629452 -0.063568838 0.078957468
0.623936 0.33394361 0.1277052
1.5218692 -0.24716914 0.4698911
0.58547837 0.33400616 0.12247206
1.0891215 -0.15875985 0.31271902
0.4988462 0.068966784 0.09525153
0.33178732 -0.13004287 0.036121305
-0.21344547 -0.12481713 -0.15420389
0.0028380279 0.043119639 -0.11782692
-0.046417754 -0.030475272 -0.12600423
-0.057393614 0.02972994 -0.13228263
0.303745 -0.057153739 -0.0071710707
0.38946041 -0.026712677 0.031115318
0.060584355 0.16803552 -0.052025367
0.04986218 0.1736428 -0.061084785
-0.20497601 -0.12303291 -0.15398537
0.93858415 0.40604445 0.23704982
0.20981631 0.12686446 -0.031477999
-0.06887009 0.091750011 -0.12819006
1.7625942 0.10973974 0.55313629
0.9144361 0.063915364 0.2265552
1.249994 -0.19361819 0.37119961
0 0 0
0.23996159 -0.10822063 -0.035076063
0.47820261 -0.0020520038 0.074183509
0.25630426 0.028387181 -0.00092039868
0.42233372 0.15379922 0.035465881
0.93039006 -0.0156075 0.23348509
0.49666625 0.073491074 0.084094487
0.0030405624 0.017793998 -0.11600343
0.6765672 0.35414571 0.1437594
0.38541055 0.089984223 0.02185283
0.6923455 -0.011297806 0.14413996
0.3555463 0.12656589 0.012965695
1.0951437 -0.18000121 0.30823076
0 0 0
1.0205508 0.43707904 0.26924017
0.95299721 0.0079298895 0.23125494
0 0 0
1.0918863 -0.16925585 0.30748585
1.0337214 -0.088399142 0.28071573
-0.071400568 -0.10341077 -0.10483013
0.57722729 0.32875183 0.12034893
0.29673994 -0.093580864 -0.018624308
0.048526216 0.081982359 -0.083944507
0.51144755 0.0024657468 0.091034651
-0.0339805 0.060412358 -0.13334496
0.87285531 -0.06322147 0.21445306
0.55911273 0.012246885 0.1058253
1.1440879 -0.16419369 0.33368436
1.4158431 0.19899718 0.41238585
1.0007336 -0.1642516 0.26672626
0.061353058 0.10598153 -0.061097063
0.86289835 -0.019326061 0.20282435
0.33492953 -0.049410935 0.005333351
0.18325186 0.065672725 -0.04292088
0.49461338 0.033332769 0.090315744
0.86558992 -0.015074029 0.20277314
1.096279 -0.13895017 0.31504276
0.41318262 0.031102562 0.043049797
0.27830461 -0.097420491 -0.022232503
1.0267315 -0.1877995 0.26660097
1.1225137 -0.12967758 0.31835282
0.17220302 -0.06364198 -0.052882902
0.19690622 -0.049025357 -0.04657314
0 0 0
0.50406134 0.29524711 0.076828517
1.021942 -0.18206422 0.27662951
0 0 0
0.46764198 -0.015452069 0.074546516
0.23461562 -0.068467632 -0.023624068
1.0378932 -0.12054814 0.27172372
1.0109575 -0.010550553 0.26306659
1.0312064 -0.0026893255 0.27996349
0 0 0
0.19429691 -0.061778534 -0.046819173
0.34895101 -0.097296961 0.043681264
0.20165017 -0.06017106 -0.045792054
0.6021871 -0.10376155 0.12444253
0.068741508 0.081721462 -0.077703618
1.0964289 -0.1332794 0.31947777
0 0 0
0.99762243 -0.13728708 0.25451919
0.26643533 -0.054728936 -0.021392273
0.18097763 0.066122212 -0.043938488
0 0 0
0.24078201 0.060244657 -0.037041321
0 0 0
0.51922768 0.019259028 0.093497925
0.43672422 -0.069149196 0.066780925
0.49911448 0.30801395 0.0769706
0.26382798 -0.054220714 -0.025770802
0.20867197 0.12690896 -0.031758059
0.42495793 0.052605964 0.045510173
0.9077422 -0.13153039 0.22857374
0 0 0
0.25136462 -0.041731827 -0.027659623
0.12516958 0.10156453 -0.055050384
0.05508776 0.13964339 -0.051720973
0.5771569 0.19057313 0.12293611
0.99523854 -0.087967858 0.26380113
0.37500268 -0.046729371 0.022340231
0.14661475 -0.054141819 -0.064809985
0.19334407 -0.056810983 -0.048081744
0.30730763 -0.063849881 -0.0063952021
0.83065534 -0.12434994 0.19622566
0 0 0
0 0 0
0.49552286 0.12575696 0.098068438
0.062411733 0.074103095 -0.082856394
0.28514251 -0.068431169 -0.022091113
1.425903 -0.21457395 0.43370983
0 0 0
0.010139287 -0.029546088 -0.10845331
0.17136003 0.079904407 -0.051793326
1.1694472 -0.01408624 0.3147071
0.94287515 -0.016095158 0.23140056
1.6568694 -0.060963158 0.51724857
1.0839664 0.32383856 0.29800162
0.56116092 0.034387171 0.1105474
0.3369987 -0.0006683158 0.015508221
0.8403157 -0.0054121283 0.19222248
0.42416954 -0.041455489 0.025786631
0.39202845 0.03384874 0.043449104
0.47853997 0.20492232 0.068204716
0.4449178 0.044245247 0.066611797
0.97528028 0.16445169 0.25060871
0.53234786 0.069102623 0.10765611
1.6909276 0.15641916 0.54069257
0 0 0
0.87419325 0.14510043 0.21715869
0.64686882 0.31124309 0.13334596
0.76409692 0.37089399 0.17017096
0.83796251 -0.0021520369 0.19198821
0.4873153 0.18310209 0.089011163
0.4275133 0.026939061 0.052460957
0 0 0
0.75749636 0.35526663 0.17563827
0.44025806 0.013501325 0.062323835
0 0 0
0.40661052 0.01360155 0.052364912
0.9459343 0.26743031 0.23653688
0 0 0
0 0 0
0 0 0
0.76146948 0.29321432 0.16306031
0 0 0
1.0353912 0.19096462 0.27697566
0 0 0
1.0525947 0.20915733 0.28328362
1.517892 0.75005996 0.43264997
0.96739513 0.26450437 0.24634831
1.3209724 0.51513237 0.36419472
1.011588 0.33035642 0.27249566
0.86699104 0.310954 0.21295798
1.0244039 0.2400237 0.28953302
1.8005046 0.62463987 0.52262497
1.5863469 0.34590396 0.48866841
0.76174557 0.24413483 0.17121997
0.81680816 0.18625797 0.18649444
1.3893365 0.092776679 0.40832791
0.60513252 0.2090477 0.13775386
0 0 0
0 0 0
0 0 0
0 0 0
0.8276732 0.15865283 0.18890859
0.88678455 0.09927652 0.21096794
0 0 0
0.89349562 0.12036064 0.21020719
0.60012323 0.10721395 0.13577351
1.0029335 0.29613653 0.26990411
0.69578916 0.27956027 0.15033205
1.018399 0.16504531 0.27279457
1.1748092 0.48307616 0.31642392
0 0 0
0.64414287 0.13240413 0.15254587
0 0 0
0.77699023 0.24296845 0.17888327
1.5969123 0.7846036 0.45446625
1.3284492 0.52433258 0.36736548
0.99842924 0.10186305 0.26623902
0 0 0
0.82878143 0.069819383 0.19958551
0 0 0
0 0 0
1.0037836 0.15423878 0.2692126
0.63923496 0.1087669 0.1444497
1.6177675 0.059447292 0.50387156
0.89310712 0.097425357 0.21335517
0.8186022 0.15458144 0.18580213
0.76778638 0.090436436 0.17047237
0.88634282 0.062962517 0.21141733
0.77747577 0.23805825 0.17339316
1.0286154 0.21048477 0.27517051
0 0 0
1.821602 0.78888386 0.53358734
0.71249032 0.25432521 0.15737857
0.8665731 0.13727157 0.19654064
0 0 0
0 0 0
0.8378998 0.25127527 0.19745317
0.87339115 0.24456479 0.20843451
0.76874846 0.17421822 0.17415048
1.0754167 0.32308209 0.29678842
1.0403318 0.24274781 0.28059193
1.3259549 0.38408303 0.37605682
1.3455577 0.38973346 0.38364187
1.6804891 0.35394338 0.52040416
1.4670724 0.47967237 0.40722331
1.0035052 0.34080854 0.27505869
0 0 0
0 0 0
1.1033952 0.27799034 0.30690804
1.1037817 0.24269828 0.30802271
0.97966957 0.3429572 0.27091643
1.0174373 0.15910521 0.27565533
1.2668324 0.33315262 0.36636683
1.5019538 0.64681911 0.42458221
1.5140576 0.54924965 0.42460734
1.7222168 0.30241746 0.53135473
1.1253806 0.30516025 0.30862713
1.3734347 0.46022573 0.37513471
1.0573125 0.34975979 0.29222113
0 0 0
1.0923939 0.26997989 0.30202925
1.4368554 0.51733708 0.39895204
0 0 0
0 0 0
1.6124247 0.29585388 0.49343678
1.1881642 0.29210302 0.33626097
1.2327433 0.2925452 0.35296386
1.3147066 0.51906401 0.36402026
1.3827003 0.5270412 0.38390607
0 0 0
1.781813 0.2625241 0.54482275
1.150084 0.24564427 0.32699403
0 0 0
1.3057799 0.45727786 0.35209936
1.2380137 0.28438616 0.35492206
1.378402 0.38629121 0.39940423
1.3107988 0.31056374 0.37558475
0 0 0
1.655779 0.2302784 0.50045514
1.1659745 0.3831287 0.31400067
1.833022 0.85696346 0.53444433
0 0 0
0 0 0
1.0538226 0.35321632 0.28964597
0 0 0
1.054034 0.25284755 0.28853747
1.0640111 0.25412813 0.29085377
1.8556703 0.5382601 0.54379863
1.1739815 0.43020886 0.31317326
0 0 0
1.0201838 0.29909757 0.27474323
1.0646447 0.31092668 0.2932812
0 0 0
0 0 0
1.0659636 0.21063288 0.28735834
0 0 0
0.99866045 0.33922467 0.27383053
0 0 0
1.08736 0.20831135 0.30276507
1.2220517 0.2910606 0.35216925
0 0 0
1.0765424 0.21550076 0.29012504
1.8062719 0.25676158 0.58795983
1.4024777 0.42844063 0.39452007
1.0671384 0.25041127 0.29060891
1.0755662 0.35785595 0.29415396
1.030496 0.31799844 0.2716105
1.0978286 0.22363749 0.31235683
1.0633932 0.25435698 0.29084906
1.0640798 0.36352792 0.2900295
1.1612201 0.25913674 0.32739231
1.6034197 0.18948996 0.48329493
1.603042 0.2162154 0.47952542
1.064023 0.35260749 0.29281765
1.4203677 0.5651139 0.39511377
1.1748117 0.41779613 0.31093311
1.4954108 0.43829927 0.42734399
1.5278239 0.4656606 0.43940809
1.5107791 0.43043205 0.43829456
0 0 0
1.2921635 0.41564739 0.3569566
1.4122946 0.37617046 0.41862842
1.8219732 0.48474175 0.53969985
0 0 0
1.868886 0.61507493 0.5498262
1.7392229 0.64232332 0.50503582
1.4925798 0.52612734 0.41686457
0 0 0
1.3790838 0.40009537 0.39380008
0 0 0
1.4405344 0.42872486 0.41040003
1.5148516 0.35498762 0.46234325
1.611313 0.44601858 0.47176036
0 0 0
1.2541548 0.29959956 0.36310452
1.2679502 0.35241017 0.35875809
1.3428562 0.38820237 0.38314074
0 0 0
1.4259135 0.43483692 0.40219811
1.4546995 0.45737782 0.41120708
1.5313909 0.46279803 0.44018131
1.3415078 0.30470318 0.39465708
0 0 0
1.3288996 0.26905078 0.38561127
0 0 0
0 0 0
1.6677574 0.28337947 0.51417685
1.6777612 0.52338636 0.48668802
1.7171885 0.5841884 0.4959209
1.5335629 0.43777913 0.44302562
1.465397 0.37281251 0.43570507
0 0 0
1.7678431 0.60875076 0.51348674
1.3690228 0.37308741 0.39653334
1.3016758 0.32739282 0.3845059
1.3899201 0.33283681 0.41473639
1.5400665 0.33714512 0.46306089
1.7051789 0.31731904 0.52640069
1.3705759 0.88839853 0.37557492
0 0 0
0.32259393 -0.10169484 0.035115249
0.56513166 -0.016646443 0.10684435
0.54835999 -0.040654089 0.1063073
1.4109914 0.86588585 0.38918805
0 0 0
0.41466141 -0.038478933 0.05996602
1.1197897 -0.073312707 0.31751984
0 0 0
0.12095059 0.18993336 -0.019917242
0 0 0
0.31706575 -0.080273047 -0.014123572
0.66607362 0.30325475 0.14141059
0.27287769 -0.034462266 -0.022405557
0 0 0
0.34802085 0.047073763 0.0073233363
1.5760435 -0.013186646 0.48953983
0 0 0
0.084287144 -0.022708395 -0.086494453
0 0 0
0.75774831 0.4511168 0.16219614
0.89417428 -0.1151379 0.22142926
0 0 0
0.28471205 -0.095010258 -0.023115372
1.0178903 -0.082612395 0.27250776
1.1113952 -0.15734473 0.32721138
0.19107904 0.070451438 -0.041497577
0 0 0
0.178671 0.078252941 -0.047874924
0 0 0
0.19140966 0.13461824 -0.028823195
1.6260397 -0.1004815 0.50738627
0.5161413 0.30578545 0.081196152
0.0014514519 0.018813308 -0.11579517
0.42009723 0.15218523 0.034132477
0.26259059 -0.081775442 -0.027476694
0.30883482 -0.12739195 0.026750444
0.26966825 0.024593523 -0.024659038
0.40146592 0.10041789 0.028168034
0.57603312 0.21227382 0.12410958
0.32345152 -0.10759471 0.034679819
0 0 0
0.73927552 -0.15511791 0.16852093
1.089692 -0.17796476 0.29992726
0.87660307 0.35349825 0.21543953
-0.099429846 -0.09552449 -0.11919373
0.17376055 0.049106173 -0.053449903
0.067176729 0.082527936 -0.07859619
0.026686139 0.11219807 -0.07282871
0.15913747 0.098072104 -0.052775875
0.55237532 0.13912968 0.1160694
0.0001978943 0.1079428 -0.078673288
0.56406331 0.073272534 0.12182546
0.53598845 0.066600353 0.10759843
1.7510467 0.3096256 0.54487145
0.5360567 0.030532423 0.10121715
0 0 0
0 0 0
0.75296426 0.36279866 0.16902348
0.48598719 -0.0064695659 0.07819403
0.42922771 0.015543085 0.059782483
0.84954906 -0.037165217 0.21146074
0.44880906 0.013381124 0.063045949
0.3499364 -0.00087922165 0.037105799
0 0 0
0.49780625 -0.0080110617 0.07968054
0.52050257 0.19676405 0.093557067
0.57495838 0.27059913 0.10856083
0 0 0
0 0 0
0.49277923 0.032704823 0.09162882
0.43354407 -0.0081670899 0.059012558
0 0 0
1.0842537 -0.056789659 0.2964659
0.57082891 0.022892328 0.11526705
0.88376468 0.079167157 0.2091032
0.43318456 0.032474555 0.050216336
0.86159283 -0.011029229 0.20037769
0.36874706 -0.00095275365 0.038977046
0 0 0
0 0 0
0 0 0
0.3539196 -0.010443451 0.028387664
0.91209239 0.39906952 0.21930973
0.57109869 0.031243278 0.11359751
0.63771647 0.31811073 0.13383262
0 0 0
0 0 0
0.49773359 0.18528806 0.092459641
1.1876744 0.24896778 0.33730909
0.99405575 0.25749332 0.25893861
0.93944663 0.058174156 0.23547487
0 0 0
0.96527159 0.35628378 0.25562358
0.83338505 0.34008455 0.19649488
0.7814784 0.3276166 0.17711608
0.88338184 0.26087111 0.21441816
0.66142309 0.24301584 0.14982586
0.82016844 0.35680521 0.19436057
0.69469339 0.20285486 0.15660164
0 0 0
1.2117059 0.099562407 0.33147952
0.74195588 0.19727007 0.16716482
0.93852335 0.075874768 0.23394142
0.77152133 0.31901023 0.17570293
0.93700582 0.11350545 0.23577654
0.84761906 0.092335001 0.19057247
1.3128003 0.060659599 0.37256712
